ply
format ascii 1.0
comment Humanplus generated
element vertex 1546
property float x
property float y
property float z
property uchar red
property uchar green
property uchar blue
end_header
43.3201 75.3708 910 85 73 74
44.5085 75.7021 914 79 70 66
47.5479 79.098 955 75 62 57
50.4223 82.0797 991 72 56 50
51.5564 82.1625 992 78 61 42
52.6396 82.1625 992 84 68 55
53.7228 82.1625 992 81 66 68
54.806 82.1625 992 79 60 59
55.9456 82.2453 993 80 56 50
56.9724 82.1625 992 81 53 50
58.0556 82.1625 992 68 55 50
59.1388 82.1625 992 56 44 33
-124.375 82.8255 987 83 60 63
-123.297 82.8255 987 74 60 63
-122.219 82.8255 987 65 58 53
-115.563 79.7205 950 79 72 53
-114.526 79.7205 950 94 84 64
-112.772 79.217 944 108 90 72
-111.031 78.7136 938 111 95 79
-109.537 78.3779 934 113 98 83
-108.053 78.0422 930 117 99 87
-106.692 77.7905 927 120 99 89
-105.224 77.4548 923 123 99 91
-103.877 77.2031 920 125 102 88
-102.313 76.7835 915 127 106 86
-100.871 76.4478 911 128 106 88
-99.5478 76.1961 908 127 106 91
-98.4478 76.1121 907 126 104 94
-97.3499 76.0282 906 130 105 97
-96.2543 75.9443 905 134 104 95
-95.1608 75.8604 904 134 106 94
-94.0695 75.7765 903 134 108 93
-92.9804 75.6926 902 134 107 92
-91.7915 75.5247 900 133 109 96
-90.7079 75.4408 899 135 112 101
-89.5266 75.273 897 137 110 101
-88.4484 75.1891 896 136 108 101
-87.3724 75.1051 895 134 108 98
-86.2986 75.0212 894 136 111 94
-85.3224 75.0212 894 137 111 99
-84.2519 74.9373 893 137 112 104
-83.2768 74.9373 893 136 110 100
-82.2095 74.8534 892 135 110 95
-81.1445 74.7695 891 134 109 98
-80.1716 74.7695 891 136 109 101
-79.1098 74.6856 890 137 110 102
-78.1379 74.6856 890 136 114 104
-77.0794 74.6017 889 135 111 100
-76.0231 74.5177 888 137 112 97
-75.0534 74.5177 888 139 114 99
-74.0004 74.4338 887 141 116 102
-73.0318 74.4338 887 143 115 102
-71.982 74.3499 886 143 114 103
-71.0146 74.3499 886 142 113 102
-70.0471 74.3499 886 138 114 102
-69.0017 74.266 885 133 113 102
-68.0353 74.266 885 136 114 102
-67.069 74.266 885 138 111 95
-66.1026 74.266 885 141 108 88
-65.1363 74.266 885 144 110 98
-64.1699 74.266 885 143 111 109
-63.2035 74.266 885 142 111 101
-62.2372 74.266 885 141 105 94
-61.2708 74.266 885 139 109 94
-60.3044 74.266 885 138 109 93
-59.3381 74.266 885 136 108 87
-58.3058 74.1821 884 135 105 82
-57.3405 74.1821 884 134 104 82
-56.3752 74.1821 884 134 107 83
-55.41 74.1821 884 133 103 88
-54.3831 74.0982 883 131 101 93
-53.3584 74.0142 882 129 100 84
-52.3953 74.0142 882 122 99 76
-51.3739 73.9303 881 115 93 74
-50.4119 73.9303 881 115 90 73
-49.4499 73.9303 881 115 87 78
-48.4879 73.9303 881 115 85 83
-47.472 73.8464 880 114 83 75
-46.4583 73.7625 879 119 85 68
-45.4467 73.6786 878 123 91 73
-44.4373 73.5947 877 123 96 79
-43.3805 73.4268 875 123 96 88
-42.3766 73.3429 874 124 99 97
-41.2327 73.0072 870 125 98 96
-40.0975 72.6716 866 129 98 94
-39.0614 72.5037 864 132 101 95
-38.0298 72.3359 862 134 103 97
-37.0455 72.252 861 135 104 98
-36.0634 72.1681 860 135 107 100
-35.1243 72.1681 860 135 106 97
-34.1455 72.0842 859 135 108 94
-33.2075 72.0842 859 134 107 94
-32.2696 72.0842 859 136 111 94
-31.2951 72.0002 858 137 112 96
-30.3582 72.0002 858 142 114 99
-29.4214 72.0002 858 146 116 104
-28.4845 72.0002 858 146 115 110
-27.5476 72.0002 858 145 116 110
-26.5797 71.9163 857 139 115 110
-25.6439 71.9163 857 132 107 99
-24.7081 71.9163 857 130 101 89
-23.7724 71.9163 857 127 99 90
-22.8632 72.0002 858 124 99 92
-21.9519 72.0842 859 120 99 90
-21.0139 72.0842 859 120 100 88
-20.0993 72.1681 860 119 96 85
-19.1825 72.252 861 117 96 82
-18.2424 72.252 861 115 93 81
-17.3223 72.3359 862 116 92 81
-16.4001 72.4198 863 116 90 82
-15.4756 72.5037 864 115 92 84
-14.5322 72.5037 864 114 92 82
-13.6045 72.5877 865 111 90 81
-12.6746 72.6716 866 108 83 78
-11.7425 72.7555 867 101 74 74
-10.8207 72.9233 869 93 71 68
-9.89457 73.0912 871 94 70 61
-8.9743 73.3429 874 95 76 66
-8.0383 73.5107 876 103 81 71
-7.08985 73.5947 877 110 85 78
-6.13922 73.6786 878 116 92 85
-5.1923 73.8464 880 121 94 84
-4.2362 73.9303 881 124 97 83
-3.27793 74.0142 882 126 97 87
-2.32009 74.1821 884 129 100 91
-1.35635 74.266 885 132 101 94
-0.389989 74.266 885 130 99 97
0.576373 74.266 885 127 102 94
1.54273 74.266 885 128 104 91
2.51193 74.3499 886 128 105 93
3.47939 74.3499 886 131 108 95
4.45186 74.4338 887 134 105 92
5.4204 74.4338 887 133 109 89
6.38895 74.4338 887 131 107 91
7.3575 74.4338 887 131 104 94
8.33543 74.5177 888 131 105 96
9.30507 74.5177 888 132 104 98
10.2747 74.5177 888 132 106 98
11.257 74.6017 889 132 108 98
12.2277 74.6017 889 131 106 97
13.1985 74.6017 889 131 104 97
14.1851 74.6856 890 131 105 95
15.157 74.6856 890 132 106 93
16.1288 74.6856 890 132 106 96
17.1006 74.6856 890 129 105 99
18.0724 74.6856 890 126 104 93
19.0656 74.7695 891 126 104 88
20.0386 74.7695 891 126 105 92
21.0115 74.7695 891 129 107 96
21.9844 74.7695 891 131 102 89
22.9573 74.7695 891 127 102 82
23.9571 74.8534 892 123 101 83
24.9311 74.8534 892 121 102 85
25.9341 74.9373 893 119 98 81
26.9092 74.9373 893 119 98 76
27.9155 75.0212 894 119 99 80
28.8917 75.0212 894 121 98 83
29.9013 75.1051 895 122 96 86
30.8786 75.1051 895 118 94 89
31.8559 75.1051 895 114 86 86
32.8699 75.1891 896 110 78 84
33.886 75.273 897 105 83 78
34.9043 75.3569 898 105 88 73
35.9249 75.4408 899 105 84 77
36.9886 75.6086 901 102 87 82
38.0146 75.6926 902 99 81 75
39.0428 75.7765 903 97 80 68
40.0731 75.8604 904 94 77 73
41.1511 76.0282 906 93 72 78
42.2334 76.1961 908 91 72 73
43.3201 76.3639 910 85 73 68
44.5572 76.7835 915 79 68 66
47.5479 80.1401 955 77 60 64
50.3206 82.9933 989 74 59 59
51.5044 83.1611 991 82 62 54
52.6396 83.245 992 89 70 59
53.7228 83.245 992 84 73 64
54.806 83.245 992 78 63 60
55.9456 83.3289 993 81 56 56
57.0298 83.3289 993 84 59 55
58.0556 83.245 992 70 65 55
59.1388 83.245 992 56 44 42
-124.375 83.9025 987 87 61 63
-123.547 84.0726 989 79 59 61
-122.219 83.9025 987 71 55 52
-116.05 81.0973 954 82 69 53
-115.008 81.0973 954 95 81 64
-113.966 81.0973 954 108 91 75
-111.031 79.7372 938 112 94 85
-109.655 79.4822 935 115 96 84
-108.053 79.0571 930 116 98 82
-106.462 78.6321 925 117 98 86
-105.11 78.377 922 119 100 90
-103.764 78.122 919 121 102 88
-102.313 77.782 915 124 104 85
-100.761 77.357 910 128 104 91
-99.5478 77.1869 908 127 105 97
-98.4478 77.1019 907 127 104 92
-97.3499 77.0169 906 130 103 87
-96.2543 76.9319 905 134 102 95
-95.1608 76.8469 904 132 106 102
-94.1737 76.8469 904 131 112 97
-92.8773 76.5919 901 132 109 91
-91.7915 76.5069 900 134 107 97
-90.607 76.3369 898 134 110 102
-89.5266 76.2519 897 135 111 102
-88.4484 76.1669 896 135 108 102
-87.3724 76.0818 895 136 105 96
-86.2986 75.9968 894 136 110 90
-85.3224 75.9968 894 136 112 95
-84.2519 75.9118 893 135 110 99
-83.1836 75.8268 892 135 107 96
-82.2095 75.8268 892 134 109 93
-81.1445 75.7418 891 134 108 103
-80.0816 75.6568 890 136 110 113
-79.1098 75.6568 890 138 112 111
-78.0501 75.5718 889 137 113 109
-77.0794 75.5718 889 135 108 104
-76.0231 75.4868 888 136 111 99
-74.9689 75.4018 887 137 111 98
-74.0004 75.4018 887 139 113 96
-72.9495 75.3168 886 142 113 97
-71.9008 75.2318 885 141 112 97
-70.9344 75.2318 885 141 110 97
-69.9681 75.2318 885 138 110 97
-68.9237 75.1468 884 135 109 103
-67.9585 75.1468 884 137 111 108
-67.069 75.2318 885 140 110 97
-66.1026 75.2318 885 142 111 86
-65.1363 75.2318 885 144 112 97
-64.1699 75.2318 885 143 114 108
-63.2035 75.2318 885 143 114 103
-62.2372 75.2318 885 140 110 98
-61.2708 75.2318 885 138 112 98
-60.3044 75.2318 885 138 111 97
-59.3381 75.2318 885 138 109 84
-58.3058 75.1468 884 136 105 70
-57.3405 75.1468 884 135 100 72
-56.3752 75.1468 884 133 103 73
-55.41 75.1468 884 132 100 81
-54.3831 75.0618 883 130 100 89
-53.4189 75.0618 883 129 99 85
-52.3953 74.9767 882 122 97 81
-51.4322 74.9767 882 115 94 81
-50.4692 74.9767 882 114 88 80
-49.4499 74.8917 881 113 84 77
-48.4879 74.8917 881 114 83 73
-47.472 74.8067 880 116 82 76
-46.4583 74.7217 879 119 88 79
-45.4467 74.6367 878 122 94 82
-44.4373 74.5517 877 123 96 84
-43.3805 74.3817 875 125 94 93
-42.3281 74.2117 873 125 98 102
-41.1853 73.8716 869 126 98 96
-40.0512 73.5316 865 128 101 89
-39.0162 73.3616 863 129 103 93
-38.0298 73.2766 862 131 104 96
-37.0455 73.1916 861 133 104 100
-36.0634 73.1066 860 133 104 104
-35.0835 73.0216 859 133 105 99
-34.1455 73.0216 859 135 105 94
-33.2075 73.0216 859 136 104 92
-32.232 72.9366 858 136 108 89
-31.2951 72.9366 858 136 111 99
-30.3229 72.8515 857 138 111 109
-29.3871 72.8515 857 141 112 114
-28.4513 72.8515 857 140 113 118
-27.5155 72.8515 857 139 111 115
-26.5797 72.8515 857 134 109 112
-25.6439 72.8515 857 129 105 102
-24.7081 72.8515 857 127 100 91
-23.7724 72.8515 857 125 96 88
-22.8632 72.9366 858 120 95 85
-21.9263 72.9366 858 116 96 91
-21.0139 73.0216 859 116 95 96
-20.0993 73.1066 860 116 91 87
-19.1602 73.1066 860 116 91 78
-18.2424 73.1916 861 115 91 80
-17.3223 73.2766 862 117 88 82
-16.4001 73.3616 863 118 84 85
-15.4577 73.3616 863 118 92 87
-14.5322 73.4466 864 119 96 82
-13.6045 73.5316 865 115 93 77
-12.66 73.5316 865 112 86 77
-11.729 73.6166 866 105 81 76
-10.8083 73.7866 868 98 74 69
-9.89457 74.0417 871 96 72 61
-8.96403 74.2117 873 95 74 69
-8.02913 74.3817 875 102 81 76
-7.08985 74.5517 877 109 84 84
-6.13922 74.6367 878 113 89 91
-5.1864 74.7217 879 118 90 94
-4.2314 74.8067 880 122 94 96
-3.27793 74.9767 882 126 94 97
-2.31746 75.0618 883 128 100 97
-1.35482 75.1468 884 130 99 97
-0.389989 75.2318 885 129 100 97
0.576373 75.2318 885 128 101 97
1.54273 75.2318 885 129 102 97
2.5091 75.2318 885 130 103 101
3.47939 75.3168 886 132 104 104
4.45186 75.4018 887 134 103 95
5.4204 75.4018 887 131 104 86
6.38895 75.4018 887 129 102 91
7.3575 75.4018 887 131 104 96
8.32604 75.4018 887 133 105 99
9.29459 75.4018 887 134 107 102
10.2747 75.4868 888 135 108 102
11.2443 75.4868 888 134 108 102
12.2277 75.5718 889 133 108 97
13.1985 75.5718 889 133 108 91
14.1692 75.5718 889 134 107 92
15.1399 75.5718 889 132 107 92
16.1107 75.5718 889 131 106 94
17.1006 75.6568 890 130 105 96
18.0724 75.6568 890 129 100 93
19.0442 75.6568 890 128 102 89
20.0161 75.6568 890 126 104 99
21.0115 75.7418 891 128 102 108
21.9844 75.7418 891 129 98 93
22.9573 75.7418 891 128 100 78
23.9571 75.8268 892 126 98 85
24.9311 75.8268 892 123 99 92
25.9341 75.9118 893 120 96 87
26.9092 75.9118 893 120 98 82
27.9155 75.9968 894 120 100 83
28.8917 75.9968 894 119 96 84
29.8679 75.9968 894 118 96 87
30.8786 76.0818 895 114 92 90
31.8559 76.0818 895 110 88 83
32.8699 76.1669 896 108 82 75
33.886 76.2519 897 106 80 68
34.9043 76.3369 898 106 83 60
35.9249 76.4219 899 106 80 69
36.9476 76.5069 900 101 81 77
38.0146 76.6769 902 97 76 74
39.0428 76.7619 903 95 77 70
40.0731 76.8469 904 93 76 71
41.1511 77.0169 906 91 74 72
42.2334 77.1869 908 89 72 67
43.3677 77.442 911 84 72 62
44.6059 77.867 916 79 68 67
47.2989 80.7573 950 79 62 71
50.3206 84.0726 989 79 58 69
51.5044 84.2426 991 86 67 66
52.6396 84.3276 992 93 76 63
53.7228 84.3276 992 87 71 60
54.806 84.3276 992 81 61 61
55.9456 84.4126 993 84 58 62
57.0298 84.4126 993 87 61 61
-124.879 85.324 991 90 65 64
-123.797 85.324 991 84 59 60
-122.715 85.324 991 77 57 50
-120.16 84.2908 979 81 57 41
-118.118 83.6021 971 85 70 53
-115.008 82.1384 954 97 80 65
-113.13 81.5357 947 108 89 73
-110.794 80.5886 936 113 95 81
-109.655 80.5025 935 117 97 85
-108.169 80.1581 931 115 99 88
-106.577 79.7276 926 113 99 90
-105.11 79.3832 922 115 100 91
-103.764 79.1249 919 117 101 87
-102.202 78.6944 914 122 102 82
-100.761 78.35 910 127 103 90
-99.5478 78.1778 908 128 106 97
-98.4478 78.0917 907 128 103 92
-97.3499 78.0056 906 131 100 87
-96.2543 77.9195 905 133 102 90
-95.1608 77.8334 904 130 105 94
-94.0695 77.7473 903 127 108 95
-92.8773 77.5751 901 131 111 97
-91.6895 77.4029 899 134 109 99
-90.607 77.3168 898 134 111 102
-89.4268 77.1446 896 133 109 100
-88.3497 77.0585 895 135 108 97
-87.2748 76.9724 894 137 108 97
-86.2021 76.8863 893 136 110 96
-85.227 76.8863 893 134 109 92
-84.1576 76.8002 892 134 108 89
-83.1836 76.8002 892 133 109 96
-82.1174 76.7141 891 133 109 104
-81.0534 76.628 890 133 108 106
-80.0816 76.628 890 136 109 108
-79.0209 76.5419 889 139 112 108
-78.0501 76.5419 889 137 118 109
-76.9927 76.4558 888 135 112 104
-75.9375 76.3697 887 135 112 99
-74.9689 76.3697 887 135 111 98
-73.9169 76.2836 886 138 112 96
-72.8671 76.1976 885 140 112 96
-71.9008 76.1976 885 140 109 97
-70.8543 76.1115 884 140 110 97
-69.889 76.1115 884 139 108 97
-68.9237 76.1115 884 137 110 98
-67.9585 76.1115 884 139 112 99
-66.9932 76.1115 884 141 112 95
-66.1026 76.1976 885 142 115 90
-65.1363 76.1976 885 143 114 99
-64.1699 76.1976 885 143 118 108
-63.2035 76.1976 885 143 113 103
-62.2372 76.1976 885 140 109 98
-61.2708 76.1976 885 137 111 98
-60.3044 76.1976 885 139 112 98
-59.3381 76.1976 885 140 109 89
-58.3058 76.1115 884 138 105 80
-57.3405 76.1115 884 135 104 79
-56.3752 76.1115 884 133 104 79
-55.41 76.1115 884 131 101 84
-54.3831 76.0254 883 130 100 90
-53.4189 76.0254 883 128 99 86
-52.4547 76.0254 883 122 97 83
-51.4322 75.9393 882 115 92 78
-50.4692 75.9393 882 113 82 74
-49.5061 75.9393 882 110 83 76
-48.4879 75.8531 881 114 82 78
-47.472 75.7671 880 118 86 82
-46.4054 75.5949 878 120 90 87
-45.3949 75.5088 877 121 94 87
-44.3866 75.4227 876 124 99 88
-43.3309 75.2505 874 126 97 93
-42.2796 75.0783 872 127 102 97
-41.1379 74.7339 868 127 101 93
-40.0512 74.4756 865 127 103 89
-39.0162 74.3034 863 126 104 90
-37.9856 74.1312 861 128 106 91
-37.0025 74.0451 860 130 102 96
-36.0215 73.959 859 131 99 101
-35.0835 73.959 859 131 103 98
-34.1058 73.8729 858 135 101 96
-33.1689 73.8729 858 138 104 92
-32.232 73.8729 858 137 106 88
-31.2587 73.7868 857 135 107 97
-30.3229 73.7868 857 135 108 107
-29.3871 73.7868 857 135 108 109
-28.4513 73.7868 857 134 112 112
-27.5155 73.7868 857 133 108 106
-26.5797 73.7868 857 129 105 101
-25.614 73.7007 856 125 101 98
-24.7081 73.7868 857 124 99 94
-23.7724 73.7868 857 122 94 91
-22.8632 73.8729 858 117 90 88
-21.9263 73.8729 858 112 93 88
-21.0139 73.959 859 113 92 88
-20.0759 73.959 859 113 89 85
-19.1602 74.0451 860 114 86 82
-18.2424 74.1312 861 115 86 80
-17.3223 74.2173 862 118 83 77
-16.3811 74.2173 862 120 88 82
-15.4577 74.3034 863 122 94 87
-14.5322 74.3895 864 123 96 84
-13.5888 74.3895 864 119 99 81
-12.66 74.4756 865 115 92 79
-11.729 74.5617 866 109 89 78
-10.7958 74.6478 867 102 80 71
-9.88321 74.9061 870 99 70 64
-8.96403 75.1644 873 95 76 70
-8.02913 75.3366 875 102 83 76
-7.08985 75.5088 877 108 85 81
-6.13922 75.5949 878 111 90 86
-5.1864 75.681 879 114 92 88
-4.2314 75.7671 880 120 94 90
-3.27793 75.9393 882 126 98 94
-2.31746 76.0254 883 127 106 97
-1.35482 76.1115 884 127 101 96
-0.389989 76.1976 885 128 99 94
0.576373 76.1976 885 129 100 94
1.54273 76.1976 885 130 100 93
2.5091 76.1976 885 131 102 94
3.47939 76.2836 886 132 103 96
4.44684 76.2836 886 133 102 94
5.4204 76.3697 887 130 100 92
6.38895 76.3697 887 127 103 93
7.3575 76.3697 887 131 104 95
8.32604 76.3697 887 135 107 98
9.29459 76.3697 887 137 109 101
10.2631 76.3697 887 138 108 102
11.2443 76.4558 888 136 108 102
12.214 76.4558 888 134 109 97
13.1985 76.5419 889 136 111 91
14.1692 76.5419 889 137 108 94
15.1399 76.5419 889 133 107 97
16.1107 76.5419 889 129 107 98
17.0814 76.5419 889 131 108 99
18.0724 76.628 890 132 103 96
19.0442 76.628 890 129 100 93
20.0161 76.628 890 126 101 98
20.9879 76.628 890 127 100 103
21.9844 76.7141 891 127 100 96
22.9573 76.7141 891 128 101 89
23.9302 76.7141 891 129 100 88
24.9311 76.8002 892 125 101 87
25.9341 76.8863 893 120 97 82
26.9092 76.8863 893 121 98 78
27.8843 76.8863 893 121 96 82
28.8917 76.9724 894 118 91 87
29.8679 76.9724 894 114 93 86
30.8786 77.0585 895 110 91 85
31.8559 77.0585 895 106 86 77
32.8699 77.1446 896 106 83 70
33.886 77.2307 897 106 82 66
34.9043 77.3168 898 106 83 63
35.9249 77.4029 899 106 81 68
36.9476 77.489 900 100 80 73
38.0146 77.6612 902 94 77 72
39.0428 77.7473 903 93 76 71
40.0731 77.8334 904 92 75 68
41.1511 78.0056 906 89 74 66
42.2334 78.1778 908 86 73 64
43.3677 78.4361 911 83 74 63
44.6059 78.8666 916 79 68 59
45.7555 79.1249 919 82 62 55
50.2697 85.0657 988 84 64 59
51.5044 85.324 991 90 73 63
52.6396 85.4101 992 96 76 65
53.7228 85.4101 992 90 75 66
54.806 85.4101 992 84 62 63
55.8892 85.4101 992 87 53 60
-128.513 86.6671 994 98 73 71
-127.428 86.6671 994 103 77 70
-126.215 86.5799 993 98 74 69
-125.005 86.4927 992 93 68 64
-123.797 86.4055 991 87 61 59
-121.972 85.8823 985 81 56 49
-120.16 85.3592 979 83 61 39
-118.118 84.6617 971 85 72 52
-115.611 83.6154 959 95 80 65
-113.13 82.5691 947 105 90 71
-111.386 82.046 941 109 93 77
-109.772 81.61 936 113 97 86
-108.285 81.2613 932 114 98 94
-106.462 80.6509 925 115 97 93
-105.11 80.3894 922 118 99 92
-103.764 80.1278 919 120 100 86
-102.313 79.779 915 122 100 79
-100.871 79.4303 911 124 100 88
-99.6574 79.2559 909 126 104 97
-98.4478 79.0815 907 128 102 92
-97.3499 78.9943 906 130 101 87
-96.2543 78.9071 905 132 100 86
-95.1608 78.8199 904 131 102 85
-94.0695 78.7327 903 130 104 94
-92.8773 78.5584 901 132 107 102
-91.6895 78.384 899 135 105 102
-90.5061 78.2096 897 133 107 102
-89.4268 78.1224 896 132 106 97
-88.3497 78.0352 895 134 107 92
-87.2748 77.948 894 136 108 97
-86.2021 77.8608 893 135 107 102
-85.1316 77.7737 892 133 107 90
-84.1576 77.7737 892 133 109 78
-83.0903 77.6865 891 134 111 96
-82.1174 77.6865 891 134 107 114
-81.0534 77.5993 890 135 104 108
-79.9916 77.5121 889 137 107 102
-79.0209 77.5121 889 140 109 105
-77.9623 77.4249 888 137 111 108
-76.9927 77.4249 888 135 111 104
-75.9375 77.3377 887 136 112 99
-74.8844 77.2505 886 137 110 98
-73.9169 77.2505 886 140 112 96
-72.8671 77.1633 885 143 112 96
-71.8195 77.0761 884 141 112 96
-70.8543 77.0761 884 139 113 97
-69.8099 76.989 883 138 110 97
-68.8458 76.989 883 137 109 94
-67.9585 77.0761 884 139 110 90
-66.9932 77.0761 884 141 111 92
-66.0279 77.0761 884 141 114 94
-65.0627 77.0761 884 141 112 101
-64.0974 77.0761 884 141 114 108
-63.1321 77.0761 884 142 112 103
-62.1668 77.0761 884 138 111 98
-61.2016 77.0761 884 135 109 99
-60.2363 77.0761 884 136 109 99
-59.271 77.0761 884 137 109 94
-58.3058 77.0761 884 136 107 89
-57.3405 77.0761 884 135 106 87
-56.3752 77.0761 884 133 102 84
-55.41 77.0761 884 131 99 88
-54.4447 77.0761 884 128 100 91
-53.4189 76.989 883 126 101 88
-52.4547 76.989 883 122 97 84
-51.4906 76.989 883 118 94 76
-50.4692 76.9018 882 114 86 68
-49.5061 76.9018 882 110 83 75
-48.4879 76.8146 881 116 87 82
-47.4181 76.6402 879 123 91 88
-46.4054 76.553 878 125 94 94
-45.3432 76.3786 876 127 94 93
-44.2853 76.2042 874 126 97 92
-43.1822 75.9427 871 126 94 92
-42.1342 75.7683 869 126 99 92
-41.0431 75.5067 866 126 99 91
-40.0049 75.3323 864 126 101 89
-38.971 75.158 862 126 102 87
-37.9856 75.0708 861 127 103 85
-37.0025 74.9836 860 129 99 91
-36.0215 74.8964 859 129 100 97
-35.0426 74.8092 858 130 105 97
-34.1058 74.8092 858 131 103 97
-33.1689 74.8092 858 132 104 92
-32.1944 74.722 857 131 104 86
-31.2587 74.722 857 131 104 95
-30.3229 74.722 857 132 103 104
-29.3871 74.722 857 133 101 105
-28.4513 74.722 857 131 105 105
-27.5155 74.722 857 128 104 98
-26.5487 74.6348 856 124 100 90
-25.614 74.6348 856 120 94 94
-24.6793 74.6348 856 119 94 97
-23.7724 74.722 857 118 90 94
-22.8632 74.8092 858 114 91 90
-21.9263 74.8092 858 110 94 85
-20.9894 74.8092 858 110 89 80
-20.0759 74.8964 859 111 86 83
-19.1602 74.9836 860 111 85 86
-18.2212 74.9836 860 112 83 79
-17.3022 75.0708 861 113 86 72
-16.3811 75.158 862 115 91 80
-15.4577 75.2451 863 117 93 87
-14.5322 75.3323 864 120 96 86
-13.6045 75.4195 865 117 95 84
-12.66 75.4195 865 115 93 82
-11.729 75.5067 866 111 90 80
-10.7834 75.5067 866 106 86 73
-9.87185 75.7683 869 102 78 66
-8.9435 75.9427 871 98 76 71
-8.01995 76.2042 874 103 80 76
-7.08177 76.3786 876 108 84 78
-6.13922 76.553 878 111 89 80
-5.1864 76.6402 879 115 95 82
-4.2314 76.7274 880 121 96 84
-3.27421 76.8146 881 127 99 91
-2.31746 76.989 883 128 102 97
-1.35482 77.0761 884 129 99 94
-0.389549 77.0761 884 129 100 91
0.576373 77.1633 885 128 98 90
1.54273 77.1633 885 129 101 89
2.5091 77.1633 885 130 101 88
3.47546 77.1633 885 131 102 87
4.44684 77.2505 886 133 100 92
5.41429 77.2505 886 130 102 97
6.38895 77.3377 887 127 104 96
7.3575 77.3377 887 131 106 94
8.32604 77.3377 887 134 108 97
9.29459 77.3377 887 135 110 100
10.2631 77.3377 887 136 108 101
11.2443 77.4249 888 134 109 102
12.214 77.4249 888 133 107 97
13.1985 77.5121 889 134 108 91
14.1692 77.5121 889 135 108 97
15.1399 77.5121 889 131 108 102
16.1107 77.5121 889 128 107 102
17.0814 77.5121 889 130 107 102
18.0724 77.5993 890 132 104 100
19.0442 77.5993 890 129 103 97
20.0161 77.5993 890 126 101 97
21.0115 77.6865 891 125 102 97
21.9844 77.6865 891 124 101 98
22.9573 77.6865 891 124 99 99
23.9302 77.6865 891 124 98 90
24.9311 77.7737 892 123 98 81
25.9051 77.7737 892 122 94 77
26.9092 77.8608 893 120 96 73
27.8843 77.8608 893 118 93 82
28.8594 77.8608 893 115 93 90
29.8679 77.948 894 111 94 85
30.8441 77.948 894 107 89 80
31.8559 78.0352 895 103 83 72
32.8699 78.1224 896 104 83 64
33.886 78.2096 897 104 81 65
34.9043 78.2968 898 104 81 65
35.9249 78.384 899 103 80 67
36.9476 78.4712 900 98 77 68
38.0146 78.6456 902 93 76 70
39.0428 78.7327 903 92 75 72
40.0731 78.8199 904 92 73 66
41.1511 78.9943 906 89 74 59
42.2334 79.1687 908 86 73 62
43.3677 79.4303 911 82 72 64
44.5572 79.779 915 78 68 52
47.2491 82.7435 949 82 64 39
50.2188 86.0567 987 86 61 50
51.5044 86.4055 991 91 74 60
52.5866 86.4055 991 95 81 66
53.6687 86.4055 991 89 70 72
54.8613 86.5799 993 84 59 65
55.9456 86.5799 993 89 60 58
-128.513 87.7518 994 105 78 68
-127.428 87.7518 994 110 80 70
-126.215 87.6635 993 103 79 71
-125.005 87.5752 992 96 70 68
-123.672 87.3987 990 90 59 64
-122.219 87.1338 987 84 58 52
-119.914 86.251 977 84 60 40
-118.118 85.7213 971 84 70 52
-116.093 85.0151 963 93 79 65
-113.847 84.1322 953 101 87 71
-113.28 84.4854 957 105 91 78
-109.772 82.6315 936 108 95 84
-108.517 82.4549 934 113 97 91
-106.807 81.9252 928 117 97 91
-105.11 81.3955 922 120 97 92
-103.764 81.1307 919 123 98 85
-102.313 80.7775 915 122 98 79
-100.871 80.4244 911 121 102 88
-99.6574 80.2479 909 125 106 97
-98.4478 80.0713 907 128 103 92
-97.3499 79.983 906 130 102 87
-96.2543 79.8947 905 131 101 83
-95.1608 79.8065 904 132 99 79
-94.0695 79.7182 903 133 105 88
-92.8773 79.5416 901 134 107 97
-91.5875 79.2768 898 135 106 98
-90.5061 79.1885 897 133 106 98
-89.327 79.0119 895 131 106 96
-88.251 78.9236 894 133 105 95
-87.1772 78.8354 893 135 104 97
-86.2021 78.8354 893 134 103 99
-85.1316 78.7471 892 132 107 91
-84.0632 78.6588 891 133 110 84
-83.0903 78.6588 891 134 108 93
-82.0252 78.5705 890 136 104 103
-81.0534 78.5705 890 137 106 102
-80.0816 78.5705 890 139 107 101
-79.0209 78.4822 889 140 109 105
-77.9623 78.394 888 137 106 108
-76.9927 78.394 888 134 111 103
-75.9375 78.3057 887 136 113 97
-74.8844 78.2174 886 138 113 100
-73.8335 78.1291 885 142 114 102
-72.8671 78.1291 885 145 114 99
-71.8195 78.0408 884 142 114 96
-70.8543 78.0408 884 138 111 95
-69.8099 77.9525 883 138 109 94
-68.8458 77.9525 883 137 108 98
-67.8816 77.9525 883 139 107 102
-66.9932 78.0408 884 140 111 99
-66.0279 78.0408 884 139 116 96
-65.0627 78.0408 884 138 113 97
-64.0974 78.0408 884 139 112 98
-63.1321 78.0408 884 140 111 98
-62.1668 78.0408 884 137 112 98
-61.2016 78.0408 884 133 108 94
-60.2363 78.0408 884 133 107 90
-59.271 78.0408 884 133 108 91
-58.3058 78.0408 884 134 108 92
-57.3405 78.0408 884 135 104 91
-56.3752 78.0408 884 133 100 90
-55.41 78.0408 884 130 101 87
-54.4447 78.0408 884 127 100 85
-53.4189 77.9525 883 123 98 82
-52.3953 77.8643 882 122 95 79
-51.4322 77.8643 882 120 90 73
-50.4692 77.8643 882 115 85 67
-49.4499 77.776 881 109 88 75
-48.4329 77.6877 880 119 90 83
-47.3641 77.5111 878 128 94 88
-46.2997 77.3346 876 131 99 94
-45.2396 77.158 874 133 98 89
-44.1839 76.9814 872 129 99 85
-43.083 76.7166 869 125 98 91
-42.0372 76.54 867 125 100 97
-40.9957 76.3635 865 125 99 91
-39.9586 76.1869 863 126 98 85
-38.971 76.0986 862 126 101 87
-37.9856 76.0104 861 127 103 89
-37.0025 75.9221 860 127 100 95
-36.0215 75.8338 859 128 98 101
-35.0426 75.7455 858 129 100 98
-34.1058 75.7455 858 127 102 95
-33.1689 75.7455 858 125 101 92
-32.1944 75.6572 857 126 102 89
-31.2587 75.6572 857 127 101 93
-30.2875 75.5689 856 129 99 97
-29.3871 75.6572 857 131 101 95
-28.4513 75.6572 857 127 101 93
-27.4834 75.5689 856 123 99 90
-26.5487 75.5689 856 119 97 88
-25.614 75.5689 856 114 94 91
-24.6793 75.5689 856 114 92 95
-23.7724 75.6572 857 113 89 86
-22.8366 75.6572 857 111 89 77
-21.9263 75.7455 858 108 86 75
-20.9894 75.7455 858 108 84 73
-20.0759 75.8338 859 108 84 74
-19.138 75.8338 859 108 84 76
-18.2212 75.9221 860 108 83 75
-17.3022 76.0104 861 109 86 74
-16.3811 76.0986 862 109 87 79
-15.4577 76.1869 863 113 89 84
-14.5322 76.2752 864 116 92 83
-13.5888 76.2752 864 116 93 82
-12.66 76.3635 865 115 93 80
-11.729 76.4518 866 113 92 79
-10.7834 76.4518 866 110 86 75
-9.86049 76.6283 868 105 79 71
-8.93323 76.8049 870 100 77 74
-8.01995 77.158 874 104 77 78
-7.08177 77.3346 876 108 82 76
-6.13922 77.5111 878 112 88 75
-5.1864 77.5994 879 115 92 81
-4.22659 77.5994 879 121 94 88
-3.27421 77.776 881 127 101 89
-2.31484 77.8643 882 129 103 91
-1.35329 77.9525 883 131 101 92
-0.389549 78.0408 884 129 102 94
0.575721 78.0408 884 127 102 96
1.54099 78.0408 884 128 104 98
2.50626 78.0408 884 128 102 95
3.47546 78.1291 885 131 104 92
4.44684 78.2174 886 133 101 92
5.41429 78.2174 886 130 103 92
6.38175 78.2174 886 127 105 92
7.3575 78.3057 887 130 106 93
8.32604 78.3057 887 133 109 94
9.29459 78.3057 887 133 113 96
10.2631 78.3057 887 133 110 96
11.2443 78.394 888 133 111 97
12.214 78.394 888 132 107 97
13.1836 78.394 888 132 105 97
14.1692 78.4822 889 132 108 99
15.1399 78.4822 889 130 111 102
16.1107 78.4822 889 127 108 100
17.0814 78.4822 889 129 108 98
18.0724 78.5705 890 131 106 98
19.0442 78.5705 890 128 106 97
20.0161 78.5705 890 125 103 92
20.9879 78.5705 890 123 104 87
21.9844 78.6588 891 121 102 85
22.9573 78.6588 891 120 97 84
23.9302 78.6588 891 119 98 80
24.9311 78.7471 892 122 100 77
25.9051 78.7471 892 124 97 78
26.9092 78.8354 893 120 97 79
27.8843 78.8354 893 115 94 78
28.8594 78.8354 893 112 93 77
29.8679 78.9236 894 108 90 76
30.8441 78.9236 894 104 86 76
31.8559 79.0119 895 100 83 74
32.8699 79.1002 896 101 83 72
33.8482 79.1002 896 102 81 72
34.9043 79.2768 898 101 80 73
35.9249 79.3651 899 100 77 68
36.9476 79.4533 900 96 72 63
38.0146 79.6299 902 91 74 67
39.0428 79.7182 903 91 76 71
40.1174 79.8947 905 91 74 65
41.1511 79.983 906 88 75 59
42.2334 80.1596 908 85 74 64
43.3677 80.4244 911 81 73 70
44.5572 80.7775 915 76 69 60
45.7555 81.1307 919 82 63 51
50.1679 87.0455 986 88 69 58
51.4005 87.3104 989 91 79 65
52.5335 87.3987 990 94 75 64
53.6687 87.4869 991 89 66 63
54.7508 87.4869 991 83 62 62
55.9456 87.6635 993 92 64 62
-131.769 88.8365 994 103 71 53
-130.684 88.8365 994 103 70 75
-129.599 88.8365 994 102 66 70
-128.513 88.8365 994 106 75 65
-127.3 88.7471 993 110 84 69
-126.088 88.6578 992 106 80 73
-124.879 88.5684 991 102 74 71
-123.672 88.479 990 93 65 69
-121.972 88.0322 985 85 58 55
-119.792 87.2278 976 85 63 40
-118.118 86.7809 971 85 70 53
-116.455 86.3341 966 94 79 65
-114.922 85.9766 962 104 87 72
-113.28 85.5297 957 105 90 78
-112.235 85.5297 957 107 93 83
-108.517 83.4742 934 111 95 87
-106.577 82.7592 926 115 95 90
-105.11 82.4017 922 118 97 92
-103.764 82.1336 919 121 98 85
-102.313 81.7761 915 122 99 78
-100.871 81.4186 911 122 102 88
-99.5478 81.1505 908 124 104 97
-98.4478 81.0611 907 127 101 92
-97.2425 80.8823 905 127 103 86
-96.1479 80.793 904 127 103 80
-95.1608 80.793 904 129 103 73
-94.0695 80.7036 903 130 108 83
-92.8773 80.5248 901 131 107 92
-91.5875 80.2567 898 132 104 93
-90.4052 80.078 896 131 104 94
-89.327 79.9886 895 130 105 96
-88.251 79.8992 894 131 103 97
-87.2748 79.8992 894 133 98 97
-86.2021 79.8099 893 134 103 96
-85.1316 79.7205 892 135 108 93
-84.0632 79.6311 891 135 108 89
-83.0903 79.6311 891 136 105 91
-82.0252 79.5418 890 136 106 92
-81.0534 79.5418 890 136 108 96
-79.9916 79.4524 889 136 109 100
-79.0209 79.4524 889 137 113 104
-77.9623 79.363 888 136 112 108
-76.906 79.2736 887 135 114 102
-75.9375 79.2736 887 138 112 95
-74.8844 79.1843 886 141 113 102
-73.8335 79.0949 885 142 113 108
-72.8671 79.0949 885 142 114 102
-71.8195 79.0055 884 140 113 96
-70.8543 79.0055 884 138 109 94
-69.8099 78.9161 883 138 109 91
-68.8458 78.9161 883 138 107 103
-67.9585 79.0055 884 139 108 114
-66.9932 79.0055 884 140 108 106
-66.0279 79.0055 884 141 111 97
-65.0627 79.0055 884 142 110 92
-64.0249 78.9161 883 141 111 87
-63.0607 78.9161 883 139 109 93
-62.0965 78.9161 883 138 110 98
-61.1323 78.9161 883 136 105 90
-60.1682 78.9161 883 133 107 81
-59.204 78.9161 883 131 107 88
-58.2398 78.9161 883 134 105 94
-57.2756 78.9161 883 137 103 95
-56.3114 78.9161 883 135 103 96
-55.3473 78.9161 883 133 104 87
-54.3831 78.9161 883 129 100 78
-53.4189 78.9161 883 125 96 76
-52.3953 78.8268 882 123 92 74
-51.4322 78.8268 882 121 86 70
-50.4119 78.7374 881 118 89 66
-49.4499 78.7374 881 115 95 75
-48.3779 78.5587 879 121 95 84
-47.3102 78.3799 877 128 94 89
-46.2468 78.2012 875 129 97 93
-45.1879 78.0224 873 131 99 86
-44.0826 77.7543 870 129 100 78
-42.9839 77.4862 867 127 98 90
-41.9887 77.3968 866 126 99 101
-40.9483 77.2181 864 126 97 91
-39.9586 77.1287 863 125 98 80
-38.971 77.0393 862 124 99 86
-37.9856 76.9499 861 122 99 92
-37.0025 76.8606 860 121 99 98
-36.0215 76.7712 859 121 96 104
-35.0426 76.6818 858 122 96 98
-34.1058 76.6818 858 123 97 92
-33.1689 76.6818 858 124 97 92
-32.1944 76.5925 857 123 98 92
-31.2587 76.5925 857 123 99 91
-30.2875 76.5031 856 124 99 90
-29.3871 76.5925 857 125 102 86
-28.4513 76.5925 857 122 98 81
-27.4834 76.5031 856 119 94 83
-26.5487 76.5031 856 115 95 85
-25.614 76.5031 856 112 93 89
-24.6793 76.5031 856 109 88 92
-23.7724 76.5925 857 107 84 78
-22.8632 76.6818 858 104 82 64
-21.9263 76.6818 858 100 77 65
-20.9894 76.6818 858 101 79 66
-20.0759 76.7712 859 102 80 66
-19.1602 76.8606 860 103 80 65
-18.2212 76.8606 860 104 77 71
-17.3022 76.9499 861 106 81 76
-16.3811 77.0393 862 109 83 78
-15.4577 77.1287 863 111 88 80
-14.5322 77.2181 864 113 89 80
-13.6045 77.3074 865 113 92 79
-12.66 77.3074 865 114 95 79
-11.729 77.3968 866 112 90 78
-10.7834 77.3968 866 110 88 77
-9.84913 77.4862 867 106 83 75
-8.93323 77.7543 870 101 77 77
-8.01995 78.1118 874 104 78 79
-7.08177 78.2905 876 107 80 74
-6.13922 78.4693 878 112 87 69
-5.1864 78.5587 879 118 90 81
-4.2314 78.648 880 122 98 92
-3.27421 78.7374 881 126 106 88
-2.31484 78.8268 882 129 104 84
-1.35329 78.9161 883 132 100 90
-0.389108 78.9161 883 131 104 96
0.575721 79.0055 884 129 105 102
1.54099 79.0055 884 130 103 107
2.50626 79.0055 884 131 99 102
3.47546 79.0949 885 132 101 97
4.44684 79.1843 886 132 98 92
5.41429 79.1843 886 130 103 86
6.38175 79.1843 886 128 108 89
7.3575 79.2736 887 131 107 92
8.32604 79.2736 887 134 107 92
9.29459 79.2736 887 133 108 91
10.2631 79.2736 887 133 107 92
11.2443 79.363 888 133 107 92
12.214 79.363 888 134 105 97
13.1836 79.363 888 133 107 102
14.1533 79.363 888 132 109 102
15.1229 79.363 888 131 107 102
16.0925 79.363 888 131 106 98
17.0814 79.4524 889 131 105 94
18.0521 79.4524 889 131 105 96
19.0442 79.5418 890 127 104 97
20.0161 79.5418 890 124 102 87
20.9879 79.5418 890 123 103 76
21.9844 79.6311 891 122 106 72
22.9573 79.6311 891 120 100 68
23.9302 79.6311 891 118 98 71
24.9311 79.7205 892 120 97 73
25.9051 79.7205 892 122 95 79
26.8791 79.7205 892 118 94 84
27.8843 79.8099 893 114 91 74
28.8594 79.8099 893 113 90 64
29.8679 79.8992 894 112 88 68
30.8441 79.8992 894 106 84 71
31.8559 79.9886 895 101 79 76
32.8699 80.078 896 99 79 80
33.8482 80.078 896 98 79 80
34.8655 80.1674 897 97 79 80
35.9249 80.3461 899 96 76 69
36.9886 80.5248 901 93 74 58
38.0146 80.6142 902 89 72 64
39.086 80.793 904 89 76 70
40.1174 80.8823 905 89 73 65
41.1965 81.0611 907 89 74 59
42.2334 81.1505 908 88 73 67
43.3677 81.4186 911 84 73 75
44.5572 81.7761 915 79 73 69
45.7555 82.1336 919 84 70 62
50.0662 87.9428 984 90 72 66
51.3485 88.3003 988 90 74 70
52.4804 88.3897 989 90 72 62
53.5603 88.3897 989 89 64 53
54.6955 88.479 990 87 60 59
-131.769 89.9212 994 103 71 53
-130.684 89.9212 994 104 76 72
-129.599 89.9212 994 104 71 66
-128.384 89.8308 993 107 73 60
-127.3 89.8308 993 109 81 66
-126.088 89.7403 992 108 84 73
-124.879 89.6499 991 107 76 68
-123.422 89.3785 988 96 67 64
-121.724 88.9261 983 85 64 52
-119.792 88.2929 976 86 63 39
-118.239 87.931 972 86 71 53
-116.937 87.7501 970 96 80 68
-115.161 87.2073 964 106 85 73
-113.635 86.8455 960 106 89 79
-112.587 86.8455 960 106 92 80
-111.538 86.8455 960 110 95 81
-104.882 83.2269 920 116 96 87
-103.877 83.2269 920 119 98 86
-102.313 82.7746 915 121 97 85
-100.871 82.4127 911 123 101 91
-99.5478 82.1413 908 124 106 97
-98.3392 81.9604 906 125 103 92
-97.2425 81.87 905 124 104 88
-96.1479 81.7795 904 123 102 86
-95.0556 81.689 903 125 102 85
-93.9654 81.5986 902 127 106 90
-92.7743 81.4176 900 128 107 95
-91.4856 81.1462 897 128 103 90
-90.4052 81.0558 896 128 102 86
-89.327 80.9653 895 128 103 91
-88.251 80.8748 894 130 103 97
-87.1772 80.7844 893 131 102 96
-86.2021 80.7844 893 134 101 95
-85.1316 80.6939 892 137 107 98
-84.1576 80.6939 892 137 110 101
-83.0903 80.6035 891 137 108 97
-82.0252 80.513 890 136 108 93
-81.0534 80.513 890 134 108 94
-80.0816 80.513 890 134 107 96
-79.0209 80.4225 889 133 110 95
-77.9623 80.3321 888 135 113 93
-76.9927 80.3321 888 136 111 93
-75.9375 80.2416 887 140 109 92
-74.8844 80.1511 886 144 110 98
-73.8335 80.0607 885 142 112 103
-72.8671 80.0607 885 139 113 100
-71.8195 79.9702 884 139 116 97
-70.8543 79.9702 884 138 111 96
-69.8099 79.8797 883 138 109 95
-68.8458 79.8797 883 138 108 100
-67.8816 79.8797 883 139 108 106
-66.9932 79.9702 884 140 109 99
-66.0279 79.9702 884 143 110 92
-65.0627 79.9702 884 146 111 95
-64.0249 79.8797 883 142 112 98
-63.0607 79.8797 883 138 112 96
-62.0965 79.8797 883 139 113 94
-61.1323 79.8797 883 139 109 93
-60.1682 79.8797 883 134 107 92
-59.204 79.8797 883 128 105 93
-58.2398 79.8797 883 134 101 94
-57.2756 79.8797 883 139 103 94
-56.3114 79.8797 883 137 105 95
-55.3473 79.8797 883 135 103 91
-54.3831 79.8797 883 131 100 88
-53.3584 79.7893 882 127 97 83
-52.3359 79.6988 881 125 91 79
-51.3739 79.6988 881 122 89 76
-50.4119 79.6988 881 122 89 73
-49.3938 79.6084 880 121 94 74
-48.3779 79.5179 879 124 99 75
-47.2562 79.2465 876 127 98 84
-46.194 79.0656 874 128 96 92
-45.0843 78.7942 871 129 100 86
-44.0319 78.6133 869 129 105 79
-42.9343 78.3419 866 129 99 89
-41.9402 78.2514 865 128 99 99
-40.9957 78.2514 865 126 96 86
-40.0049 78.1609 864 124 97 73
-39.0162 78.0705 863 121 95 79
-38.0298 77.98 862 118 96 86
-37.0455 77.8895 861 114 95 89
-36.0634 77.7991 860 115 91 92
-35.0835 77.7086 859 115 92 90
-34.1455 77.7086 859 119 93 87
-33.1689 77.6181 858 123 93 88
-32.1944 77.5277 857 121 94 90
-31.2587 77.5277 857 118 96 87
-30.2875 77.4372 856 118 97 85
-29.3871 77.5277 857 118 96 83
-28.4513 77.5277 857 116 94 81
-27.4834 77.4372 856 114 92 80
-26.5487 77.4372 856 112 94 80
-25.614 77.4372 856 109 86 80
-24.6793 77.4372 856 105 82 80
-23.7724 77.5277 857 101 79 74
-22.8366 77.5277 857 97 76 69
-21.9263 77.6181 858 92 75 66
-20.9894 77.6181 858 94 74 64
-20.0759 77.7086 859 96 77 67
-19.138 77.7086 859 98 80 70
-18.2212 77.7991 860 100 78 74
-17.3022 77.8895 861 104 77 79
-16.3811 77.98 862 108 83 78
-15.4577 78.0705 863 109 89 78
-14.5322 78.1609 864 109 89 80
-13.5888 78.1609 864 111 92 82
-12.66 78.2514 865 113 89 79
-11.729 78.3419 866 112 86 77
-10.7834 78.3419 866 110 85 73
-9.84913 78.4323 867 106 88 70
-8.93323 78.7037 870 102 81 74
-8.01995 79.0656 874 104 77 79
-7.08177 79.2465 876 105 82 77
-6.13922 79.4274 878 113 91 75
-5.1864 79.5179 879 120 94 83
-4.22659 79.5179 879 122 101 92
-3.27421 79.6988 881 124 103 91
-2.31484 79.7893 882 129 106 91
-1.35329 79.8797 883 133 105 90
-0.389108 79.8797 883 132 107 89
0.57507 79.8797 883 131 105 95
1.53925 79.8797 883 133 104 102
2.50626 79.9702 884 134 102 99
3.47546 80.0607 885 133 103 97
4.44684 80.1511 886 131 101 92
5.41429 80.1511 886 130 101 88
6.38175 80.1511 886 128 104 88
7.3575 80.2416 887 131 107 89
8.32604 80.2416 887 134 106 91
9.29459 80.2416 887 133 106 94
10.2631 80.2416 887 132 106 95
11.2317 80.2416 887 134 106 97
12.2002 80.2416 887 135 107 100
13.1688 80.2416 887 133 109 102
14.1533 80.3321 888 131 107 100
15.1229 80.3321 888 133 102 98
16.0925 80.3321 888 135 104 94
17.0622 80.3321 888 133 100 90
18.0521 80.4225 889 130 103 96
19.0228 80.4225 889 127 101 102
20.0161 80.513 890 123 102 93
20.9879 80.513 890 123 101 84
21.9597 80.513 890 123 101 80
22.9573 80.6035 891 120 98 77
23.9302 80.6035 891 117 97 78
24.9031 80.6035 891 119 94 80
25.9051 80.6939 892 120 93 81
26.8791 80.6939 892 117 92 81
27.8531 80.6939 892 113 90 75
28.8594 80.7844 893 114 89 68
29.8345 80.7844 893 115 85 71
30.8441 80.8748 894 108 82 73
31.8203 80.8748 894 101 79 71
32.8332 80.9653 895 98 76 68
33.8482 81.0558 896 94 78 74
34.9043 81.2367 898 93 81 81
35.9249 81.3272 899 92 77 76
36.9886 81.5081 901 90 77 71
38.0567 81.689 903 87 75 71
39.086 81.7795 904 87 81 70
40.1618 81.9604 906 87 76 65
41.1965 82.0509 907 89 73 59
42.2799 82.2318 909 91 73 63
43.4153 82.5032 912 87 73 67
44.5572 82.7746 915 82 74 67
45.7555 83.1365 919 87 73 66
49.9644 88.8357 982 91 73 63
51.1406 89.0166 984 89 73 60
52.3212 89.1975 986 86 66 57
53.452 89.288 987 89 59 55
54.585 89.3785 988 91 65 61
55.6639 89.3785 988 95 72 67
-131.769 91.006 994 98 78 53
-130.684 91.006 994 102 75 68
-129.599 91.006 994 106 70 62
-128.384 90.9144 993 107 74 55
-127.171 90.8229 992 107 82 64
-125.961 90.7313 991 108 84 72
-124.627 90.5482 989 108 79 66
-123.047 90.182 985 99 72 59
-121.477 89.8158 981 90 66 49
-119.914 89.4495 977 88 65 38
-118.483 89.1749 974 86 70 54
-117.057 88.9002 971 93 77 70
-115.639 88.6255 968 101 84 75
-114.108 88.2593 964 104 88 79
-112.587 87.8931 960 107 91 77
-111.538 87.8931 960 111 95 75
-104.882 84.2309 920 115 98 82
-103.877 84.2309 920 117 101 87
-102.425 83.8647 916 120 100 91
-100.982 83.4985 912 123 99 94
-99.5478 83.1322 908 125 103 97
-98.3392 82.9491 906 126 102 93
-97.2425 82.8576 905 125 102 89
-96.1479 82.766 904 123 99 93
-95.1608 82.766 904 125 102 97
-93.8612 82.4913 901 127 106 97
-92.6712 82.3082 899 127 103 97
-91.4856 82.1251 897 128 99 87
-90.4052 82.0336 896 128 101 77
-89.327 81.942 895 129 100 87
-88.251 81.8504 894 129 102 97
-87.2748 81.8504 894 129 105 96
-86.2021 81.7589 893 132 105 94
-85.1316 81.6673 892 136 107 104
-84.1576 81.6673 892 136 108 113
-83.0903 81.5758 891 135 108 103
-82.1174 81.5758 891 134 107 93
-81.0534 81.4842 890 133 107 93
-80.0816 81.4842 890 133 107 92
-79.0209 81.3927 889 133 107 85
-77.9623 81.3011 888 133 108 78
-76.9927 81.3011 888 134 109 84
-75.9375 81.2096 887 136 108 89
-74.8844 81.118 886 139 104 94
-73.9169 81.118 886 141 109 98
-72.8671 81.0265 885 142 109 98
-71.8195 80.9349 884 141 111 97
-70.8543 80.9349 884 140 108 98
-69.889 80.9349 884 138 110 98
-68.9237 80.9349 884 137 109 98
-67.9585 80.9349 884 138 109 98
-66.9932 80.9349 884 139 111 93
-66.0279 80.9349 884 142 110 87
-65.0627 80.9349 884 144 110 98
-64.0249 80.8433 883 141 112 109
-63.0607 80.8433 883 137 112 99
-62.0965 80.8433 883 137 111 89
-61.1323 80.8433 883 136 111 96
-60.1682 80.8433 883 135 107 102
-59.204 80.8433 883 134 103 98
-58.2398 80.8433 883 136 104 93
-57.2756 80.8433 883 139 104 93
-56.2477 80.7518 882 138 105 93
-55.2846 80.7518 882 137 103 95
-54.3215 80.7518 882 131 101 97
-53.2979 80.6602 881 125 99 91
-52.3359 80.6602 881 121 94 84
-51.3156 80.5687 880 118 90 82
-50.3547 80.5687 880 120 91 79
-49.3377 80.4771 879 123 94 73
-48.2678 80.294 877 123 99 66
-47.2023 80.1109 875 124 101 79
-46.1411 79.9278 873 126 99 91
-45.0843 79.7447 871 128 99 86
-43.9813 79.47 868 126 98 80
-42.9839 79.3785 867 124 94 88
-41.9887 79.2869 866 121 93 96
-40.9957 79.1953 865 118 90 81
-40.0512 79.1953 865 115 90 66
-39.0614 79.1038 864 112 88 73
-38.0739 79.0122 863 110 90 79
-37.0885 78.9207 862 109 93 80
-36.1053 78.8291 861 110 89 80
-35.1243 78.7376 860 112 88 81
-34.1853 78.7376 860 115 88 82
-33.2075 78.646 859 119 88 85
-32.232 78.5545 858 116 91 87
-31.2587 78.4629 857 114 92 83
-30.2875 78.3714 856 114 92 79
-29.3871 78.4629 857 114 92 80
-28.4513 78.4629 857 112 90 80
-27.4834 78.3714 856 110 86 78
-26.5487 78.3714 856 107 83 75
-25.614 78.3714 856 105 73 71
-24.6793 78.3714 856 101 77 67
-23.7724 78.4629 857 98 74 71
-22.8632 78.5545 858 93 73 74
-21.9263 78.5545 858 88 72 68
-20.9894 78.5545 858 91 71 61
-20.0759 78.646 859 95 73 68
-19.1602 78.7376 860 95 74 74
-18.2424 78.8291 861 96 76 78
-17.3223 78.9207 862 99 76 81
-16.4001 79.0122 863 102 81 78
-15.4577 79.0122 863 105 84 75
-14.5322 79.1038 864 108 84 80
-13.6045 79.1953 865 107 86 85
-12.66 79.1953 865 107 84 80
-11.729 79.2869 866 106 82 75
-10.7958 79.3785 867 106 78 70
-9.86049 79.47 868 104 82 64
-8.95376 79.8362 872 102 80 72
-8.02913 80.1109 875 103 78 79
-7.08985 80.294 877 105 80 80
-6.13922 80.3856 878 112 89 80
-5.1864 80.4771 879 119 93 86
-4.2314 80.5687 880 122 98 92
-3.27421 80.6602 881 125 100 95
-2.31484 80.7518 882 128 104 97
-1.35329 80.8433 883 131 107 90
-0.389108 80.8433 883 132 107 82
0.57507 80.8433 883 133 104 89
1.53925 80.8433 883 133 105 96
2.50626 80.9349 884 133 103 97
3.47546 81.0265 885 131 101 97
4.44684 81.118 886 129 101 93
5.41429 81.118 886 128 100 89
6.38175 81.118 886 127 101 88
7.3492 81.118 886 129 105 86
8.32604 81.2096 887 131 104 91
9.29459 81.2096 887 130 105 96
10.2631 81.2096 887 130 105 99
11.2317 81.2096 887 132 106 102
12.2002 81.2096 887 135 109 102
13.1688 81.2096 887 132 108 102
14.1373 81.2096 887 129 107 98
15.1059 81.2096 887 130 106 94
16.0925 81.3011 888 132 108 90
17.0622 81.3011 888 129 104 86
18.0521 81.3927 889 127 106 96
19.0228 81.3927 889 125 103 106
20.0161 81.4842 890 123 102 99
20.9879 81.4842 890 121 100 91
21.9597 81.4842 890 120 97 88
22.9315 81.4842 890 118 96 85
23.9302 81.5758 891 117 96 86
24.9031 81.5758 891 116 92 87
25.876 81.5758 891 115 92 83
26.8791 81.6673 892 114 89 78
27.8531 81.6673 892 114 87 75
28.8271 81.6673 892 112 86 72
29.8345 81.7589 893 110 81 74
30.8096 81.7589 893 104 82 75
31.8203 81.8504 894 98 80 66
32.8332 81.942 895 95 77 56
33.8482 82.0336 896 93 76 69
34.8655 82.1251 897 93 77 81
35.9249 82.3082 899 93 75 83
37.0297 82.5829 902 91 75 84
38.0989 82.766 904 89 71 77
39.1292 82.8576 905 88 75 70
40.2061 83.0407 907 87 76 65
41.2419 83.1322 908 88 74 59
42.3264 83.3153 910 89 73 59
43.4153 83.4985 912 86 74 59
44.6059 83.8647 916 83 76 65
45.7555 84.1393 919 87 75 70
49.8118 89.6327 979 91 73 60
51.0367 89.9073 982 87 67 49
52.2151 90.0904 984 83 59 53
53.3979 90.2735 986 90 63 57
54.5298 90.3651 987 97 69 63
55.6639 90.4566 988 100 76 69
56.7427 90.4566 988 103 77 64
-129.468 91.9981 993 108 72 68
-128.384 91.9981 993 107 69 63
-127.3 91.9981 993 105 80 66
-126.088 91.9054 992 107 89 70
-124.627 91.6275 989 109 83 69
-122.922 91.1643 984 102 77 68
-121.477 90.8863 981 95 68 61
-119.914 90.5157 977 90 59 54
-118.483 90.2378 974 85 66 60
-117.178 90.0525 972 91 72 65
-115.639 89.6819 968 96 82 73
-114.227 89.404 965 102 89 81
-113.056 89.3113 964 108 93 83
-112.119 89.404 965 112 97 85
-105.452 85.6981 925 115 99 82
-104.442 85.6981 925 114 101 87
-102.649 85.0496 918 119 104 92
-101.093 84.5863 913 123 102 92
-99.5478 84.1231 908 125 103 93
-98.3392 83.9378 906 127 103 96
-97.2425 83.8452 905 125 104 98
-96.1479 83.7525 904 123 102 96
-95.0556 83.6599 903 125 102 93
-93.8612 83.4746 901 127 102 93
-92.6712 83.2893 899 127 98 93
-91.4856 83.104 897 127 100 91
-90.4052 83.0113 896 129 104 88
-89.327 82.9187 895 130 101 90
-88.251 82.826 894 128 101 92
-87.2748 82.826 894 126 104 91
-86.2021 82.7334 893 131 107 90
-85.1316 82.6408 892 135 107 96
-84.0632 82.5481 891 134 108 102
-83.0903 82.5481 891 133 108 97
-82.1174 82.5481 891 133 106 93
-81.0534 82.4555 890 132 106 93
-80.0816 82.4555 890 133 108 93
-79.0209 82.3628 889 133 105 88
-77.9623 82.2702 888 132 104 82
-76.9927 82.2702 888 131 106 83
-75.9375 82.1775 887 133 109 84
-74.9689 82.1775 887 134 108 89
-73.9169 82.0849 886 140 109 95
-72.8671 81.9922 885 145 109 94
-71.9008 81.9922 885 144 112 94
-70.8543 81.8996 884 142 111 99
-69.889 81.8996 884 139 113 103
-68.9237 81.8996 884 135 111 99
-67.9585 81.8996 884 137 109 94
-66.9932 81.8996 884 138 111 96
-66.0279 81.8996 884 140 110 98
-65.0627 81.8996 884 142 111 98
-64.0249 81.8069 883 139 112 99
-63.0607 81.8069 883 136 111 95
-62.0965 81.8069 883 135 108 91
-61.1323 81.8069 883 133 108 92
-60.1682 81.8069 883 136 108 94
-59.204 81.8069 883 139 105 96
-58.2398 81.8069 883 139 109 98
-57.2108 81.7143 882 139 107 95
-56.2477 81.7143 882 139 106 93
-55.2846 81.7143 882 138 103 93
-54.3215 81.7143 882 131 100 93
-53.2979 81.6216 881 123 98 90
-52.2765 81.529 880 118 96 86
-51.3156 81.529 880 113 89 83
-50.2975 81.4363 879 119 90 80
-49.2816 81.3437 878 124 94 78
-48.2128 81.1584 876 123 102 76
-47.1483 80.9731 874 121 101 82
-46.0883 80.7878 872 124 101 88
-45.0843 80.6952 871 126 96 81
-44.0319 80.5099 869 122 92 74
-42.9839 80.3246 867 118 91 73
-41.9887 80.2319 866 114 88 73
-41.0431 80.2319 866 109 85 71
-40.0512 80.1393 865 106 85 69
-39.1066 80.1393 865 103 82 69
-38.118 80.0467 864 103 81 70
-37.1315 79.954 863 103 83 71
-36.1473 79.8614 862 106 82 73
-35.206 79.8614 862 108 85 76
-34.225 79.7687 861 112 84 79
-33.2462 79.6761 860 115 87 80
-32.2696 79.5834 859 112 89 81
-31.2951 79.4908 858 109 88 79
-30.3229 79.3981 857 109 88 77
-29.3871 79.3981 857 109 87 78
-28.4513 79.3981 857 107 86 78
-27.5155 79.3981 857 105 82 75
-26.5487 79.3055 856 103 77 72
-25.614 79.3055 856 101 75 65
-24.7081 79.3981 857 98 77 59
-23.7724 79.3981 857 94 72 62
-22.8632 79.4908 858 89 71 66
-21.9519 79.5834 859 84 66 61
-21.0139 79.5834 859 89 64 56
-20.0993 79.6761 860 93 64 59
-19.1602 79.6761 860 92 66 63
-18.2424 79.7687 861 91 68 67
-17.3223 79.8614 862 93 70 71
-16.4001 79.954 863 95 75 71
-15.4756 80.0467 864 101 80 70
-14.549 80.1393 865 106 80 74
-13.6045 80.1393 865 104 83 78
-12.6746 80.2319 866 101 80 76
-11.7425 80.3246 867 101 81 73
-10.8083 80.4172 868 101 79 70
-9.87185 80.5099 869 101 81 68
-8.96403 80.8805 873 101 79 68
-8.0383 81.1584 876 103 76 68
-7.08985 81.2511 877 105 83 77
-6.14621 81.4363 879 112 92 86
-5.1864 81.4363 879 118 95 87
-4.2314 81.529 880 122 97 88
-3.27421 81.6216 881 125 99 91
-2.31484 81.7143 882 127 102 94
-1.35329 81.8069 883 128 104 93
-0.389108 81.8069 883 131 108 92
0.57507 81.8069 883 134 106 91
1.53925 81.8069 883 133 107 91
2.50626 81.8996 884 131 102 93
3.47546 81.9922 885 129 98 95
4.44684 82.0849 886 126 98 97
5.41429 82.0849 886 126 98 99
6.38175 82.0849 886 125 102 92
7.3492 82.0849 886 126 106 86
8.31666 82.0849 886 127 103 91
9.29459 82.1775 887 127 104 97
10.2631 82.1775 887 127 105 98
11.2317 82.1775 887 131 105 100
12.2002 82.1775 887 134 105 102
13.1688 82.1775 887 131 106 105
14.1373 82.1775 887 127 105 100
15.1059 82.1775 887 128 106 96
16.0925 82.2702 888 128 105 94
17.0622 82.2702 888 126 102 92
18.0521 82.3628 889 124 103 92
19.0228 82.3628 889 123 102 93
19.9936 82.3628 889 122 100 90
20.9879 82.4555 890 120 100 88
21.9597 82.4555 890 117 96 84
22.9315 82.4555 890 117 93 81
23.9034 82.4555 890 116 92 82
24.9031 82.5481 891 113 86 84
25.876 82.5481 891 110 87 83
26.8791 82.6408 892 112 84 82
27.8531 82.6408 892 114 85 80
28.8271 82.6408 892 110 86 79
29.8345 82.7334 893 105 84 74
30.8096 82.7334 893 100 86 70
31.8203 82.826 894 94 80 67
32.8332 82.9187 895 93 74 64
33.8482 83.0113 896 92 76 73
34.9043 83.1966 898 93 76 82
35.9648 83.3819 900 94 76 80
37.0297 83.5672 902 92 76 78
38.0989 83.7525 904 90 73 72
39.1725 83.9378 906 88 73 67
40.2061 84.0305 907 86 74 63
41.2419 84.1231 908 86 75 59
42.3264 84.3084 910 86 75 55
43.4629 84.5863 913 85 75 51
44.6059 84.8643 916 83 76 60
45.7555 85.1422 919 87 79 70
49.71 90.5157 977 91 73 66
